# 3D point list with one line of data per point:
#   POINT3D_ID, X, Y, Z, R, G, B, ERROR, TRACK[] as (IMAGE_ID, POINT2D_IDX)
# Number of points: 391, mean track length: 4.3914974619289344
664 -1.3659190300254185 0.3912517581889271 4.8131011077659265 136 131 112 1.0646343221966519 15 355 137 362 138 341 139 332 140 322 9 480 12 362 142 302 141 362 143 135 5 329 6 379 7 401 8 425 14 357 15 356 7 402 10 425 4 283 13 346 20 395 22 421 21 347 23 435 24 478 19 327 19 328 12 363 11 398 18 291 16 347 136 255 27 471 27 472 26 319 3 248 25 201 135 161 133 191 134 193 132 235 131 228 130 225 2 323 127 278 129 266 128 292 126 247 1 301 125 153
665 0.99237466269503682 -0.39664005279628856 6.1258572196178918 33 33 23 1.1098836971642505 7 227 14 203
666 6.7503627818663032 -4.1093350221316669 12.906974193469281 0 0 0 0.61399664568304635 5 290 6 336
667 -1.5122816704266018 -0.94503544844783549 6.1004447652396578 149 111 12 1.2079643801520519 142 290 13 333 3 227
668 6.6360366678203082 -3.5926044201648084 11.997736160701429 124 102 88 0.14324383146434216 15 344 14 340
669 6.6360366678203082 -3.5926044201648084 11.997736160701429 124 102 88 0.14324383146434216 15 345 14 341
670 -1.5580054895912094 1.0856835846969353 4.5796946526415461 142 118 30 2.0966858912963406 5 319 14 365
671 -1.5199017378836477 -1.3527222822919176 6.4299568494364685 201 197 188 1.6051767641753512 141 416 14 404
673 0.87562383622342332 -0.42975983582804544 6.0428801355043165 185 170 138 1.5522004605199413 9 28 10 166 11 104
674 0.90714951098044205 -0.43431809263066484 6.0597872250845954 174 167 157 1.2937136272649603 9 29 10 167 11 105
675 0.62797925074145911 -0.17315338620712437 6.0393310610483386 24 19 10 1.0993900239328571 21 262 11 249
676 -1.5253807377490853 0.55215919484709375 4.8547921523030455 63 61 49 0.53744983218519571 15 221 10 182 23 237 24 189 11 172
677 -2.0596456626022586 1.5370547194952884 5.9574969203050703 206 202 191 1.0763214085541681 6 253 20 325 21 194
678 -1.3106485120812221 0.46338329500896075 4.7978652924920215 62 60 49 0.65357037684668273 9 367 10 236 23 345 11 301
679 -1.6458740063140753 0.65126038193121161 4.9092729917537286 156 76 59 1.2267936066619334 10 240 135 93 133 135 134 128 141 265
680 -1.6419298808768437 0.65081557948678748 4.9116890856607629 156 76 59 0.33891172324465424 139 223 10 241
681 -2.2635624033293902 0.60150332368825898 5.7629337037215045 158 123 0 1.1723629509198965 137 43 10 244
682 -0.024027367645401334 1.5375587129648087 6.2326933195303162 149 131 60 1.3551257984493954 7 267 10 277 22 342
683 -1.5343549804359475 0.41737515038423845 4.9027125943689267 45 45 35 0.9097403966269143 140 202 10 295 11 300
684 0.44531312441117543 -0.065279889878053651 6.0539613745870078 174 154 102 1.2214460311222028 8 330 10 297 20 330 21 286
685 -1.4327465193005797 0.59060849511577584 4.783470287978794 60 57 48 0.32029849931971283 9 371 10 299 11 304
686 0.51397625092781196 -0.1018786078240751 6.1213901211991173 46 39 20 1.8769035275397603 9 397 10 319
689 -2.5409077576214125 0.70156330110948095 5.5026734438159863 215 197 99 0.10212916232406405 9 442 10 386
693 -0.91112562866127311 0.85429411141968525 4.7703213465018566 88 28 18 1.5975444908637935 8 405 9 468 10 417 23 429 16 269 18 231
694 -0.01119518299614846 0.90200682009638777 6.1049000328258787 200 193 185 2.132771310013986 9 485 10 429
695 0.60669159284990848 -0.011372189316449526 5.8012019789262217 29 30 25 1.7406923643637409 9 492 10 439 23 445
696 -0.70404057492135164 0.77742065851433517 4.7380889982866146 126 99 18 1.6042215756455875 8 432 12 377 20 403 22 438 29 193 11 421 43 328 42 111 41 309 140 336 44 275 33 291 21 355
697 -0.90557771910205342 0.91596366733741019 4.791912099959565 0 0 0 0.98641052283820907 14 371 143 150 142 322
699 0.89212593791093953 -0.23231440178352583 6.0362457017273199 22 23 18 1.4561673597565874 9 533 23 488 33 331 32 418 45 276
700 0.9244842527725925 -0.27386188443164566 6.1414868301175618 41 42 37 1.4056081349364868 9 534 12 402 8 465 21 385 30 348 38 452
705 -1.3889521434780827 1.1627049401897971 5.2296857248431374 147 121 21 1.3403086517613652 6 442 8 477 9 551 10 481 11 469
709 -0.9512574627471615 3.2204249440606638 6.2714796077578274 82 59 28 0.206210707253453 142 367 21 418
710 -0.93901437443362323 3.1669713793090044 5.9566273020976164 0 0 0 1.3170488233186486 8 499 9 563
711 0.69083579142589069 1.0036345074464288 6.1172179074305886 114 87 31 1.8566386036925497 143 90 5 204 142 273 6 301 8 361 7 311 14 282 10 365 139 274 140 245 9 445 12 331 7 327 4 233 13 222 22 356 21 273 20 321 23 393 24 454 11 358
712 -1.1412282946064958 0.96243420071639074 4.7837656556592574 61 24 12 1.9280433192892095 8 407 10 401 15 313 137 301 138 287 9 443 12 343 141 331 4 266 23 419 142 286 24 468 19 309 18 267 136 209 135 109 133 147 134 145 132 158
713 -2.3230899426880995 -6.0518242120795662 13.757641051944825 163 155 136 0.15598874844350191 7 333 10 349
717 -0.9422542502176936 0.94328103294270538 4.8368614191772012 50 18 12 2.4624059414826451 142 354 6 441 8 486 9 550 10 480 7 480 14 405 4 327 4 322 22 481 21 401 23 500 24 542 19 372 11 468
718 -1.4753346954579016 -1.0260504566477699 6.0808752665802812 204 183 138 1.7988771541271171 5 7 4 8
719 -1.3814953352162969 -1.1857218716790616 6.0292098164420977 192 183 154 1.1729318568133489 142 3 4 85
721 -1.881955975900945 0.31565390342274174 5.4359378835569938 174 152 53 0.57357084337503206 5 80 12 209 15 157 4 145
722 -0.37231331320488004 0.44811883227628369 5.0197092766876228 89 86 76 1.6347626360265384 4 146 31 126
723 -2.4712453821712481 0.39054588545626973 6.4533593976891837 161 139 38 0.011083905203716654 141 295 4 203
724 0.5790621077187651 0.88124461871682969 6.0147634322550347 105 80 21 1.4174701970026524 143 82 4 230 19 278
725 -1.217900947091122 0.87157807235143581 4.7178482361450458 89 59 7 1.5938178199112667 142 274 4 246 5 284 21 324 11 343 136 201 33 212 46 185 47 156 135 108 132 156 130 152
727 -0.41974013357315809 1.231000731172204 5.1467034387516657 159 139 27 0.88695647480331596 14 331 141 347 4 269
731 -2.2098929762926716 0.26976127252947801 6.39415704262254 0 0 0 1.3851325400547014 141 405 142 343
732 0.14988285031353119 1.6814325932772991 6.3658739200699692 0 0 0 0.048875979756620877 15 408 143 177
735 -1.4739759501449958 -1.2196690619172208 5.8950891469948195 197 193 182 1.7728830670221796 15 410 4 326
736 -1.8673019336355907 1.9966154515679018 5.9228404199125606 106 77 17 1.200445359918195 141 419 13 387
738 0.29469147611779739 1.9379313821394226 5.986335127080828 0 0 0 1.4784476526657775 137 420 142 365
740 -0.92544925071199069 3.4832628482466546 6.888712179534255 0 0 0 2.8934232102277742 14 414 141 429
741 -1.512602658263456 -1.014718627596459 6.126508024023102 225 204 71 1.3541602423491947 5 265 6 307 7 298 4 247 142 252 141 326 143 79 14 300 13 299 3 209
742 0.062032370793419063 0.97298981739157464 6.0581690673496045 85 66 16 1.6469201777468978 15 335 5 317 14 336 4 275 13 336 6 357
744 -0.35448173356983759 1.239032741910737 5.3065548057211993 112 82 27 0.035612648296589701 14 266 13 241
745 -0.10547904678521078 -0.067140021825291593 5.57379887149194 111 85 28 1.5091671463234597 13 279 20 393 22 420
746 -2.4419709699648586 0.44319118213617964 6.4408685254256541 152 122 4 1.3588209087444933 14 304 13 291 3 200 127 242 129 195 128 236 17 262 2 263 1 260
747 -0.61789004527271019 0.94805384617164834 4.8160149264585685 89 62 10 1.8007007058703579 5 285 13 295 41 249 22 393 44 212 40 170 46 187 45 179
748 -0.15988419064875053 2.8017960348850521 6.4701472869867622 72 50 11 0.94530056790921524 5 300 13 314
750 -0.17294330921746798 0.88011070209195441 5.236362388614106 82 35 27 0.22244432860023222 4 291 13 352
751 -0.97541742347070504 -1.5172847658718178 6.2767598272612952 63 63 50 2.2022571752624702 7 417 21 363 6 400
754 -1.4276727102756506 0.50725895912791208 4.8648359394966718 22 23 15 1.6592238854713255 4 298 14 381 13 364 19 352
756 -0.77768532090033338 0.33220946154714492 4.7986114244959914 114 88 14 1.1327689708851303 13 369 28 367 29 215
757 -2.165758090675546 0.69589452599273316 6.1240333237111697 200 193 183 2.7269013419946999 14 391 13 371
759 -0.33251996473394846 0.56192576097431024 4.9410511091839115 0 0 0 0.65953547058202655 4 320 5 377
761 -2.4189647333031266 0.82694508813066248 5.5436392783524804 115 81 20 0.65637479876847171 14 401 141 409 136 290
768 -0.9013105873304198 3.5883749029438903 7.6457988830257424 0 0 0 0.75822118040551811 15 423 143 196
769 -1.3613413637154768 1.1686040895497853 5.0664267654939428 106 93 18 1.4592565100336512 4 312 142 355 141 410 14 402
771 -2.4531784732640149 0.62698076578826323 5.5194711819893181 233 213 78 1.0814010856695679 15 176 20 16 24 89 19 36
772 -1.2164825520825868 -1.3014086395551137 5.8783804533059438 184 170 123 0.65452668991521401 8 227 20 113 21 5
773 -2.4661961520426257 0.61087030134882858 5.5408079749279748 246 221 102 0.036035507661979674 20 129 21 120
775 0.46694702695285445 -0.057083120833281917 6.0606910681203772 230 221 214 1.3427901904746367 10 113 20 193 21 161
776 0.44896271311783315 0.88135098665761513 6.1039751590132658 228 222 224 0.85333548225020872 6 187 20 215 22 145
779 0.72419162097956113 -0.19854977850445385 5.8085315772542998 47 35 21 1.9354797383683113 6 17 20 261 22 273
780 1.2444810901993881 -0.25068882253853464 6.3124845821524982 200 197 192 0.83354912862713615 8 241 11 252 27 314
781 -2.4194079833620989 1.1957787778758842 5.8141024369184082 222 217 211 0.72498295128057266 137 259 20 278
782 0.73773138792843673 -0.21551666484235762 5.8309996034342113 46 40 29 0.89797731537004155 4 140 10 228 20 306
783 0.60191959767457659 -0.11113677891443256 5.8625107994196322 163 137 63 2.1181042530950056 8 240 20 309 22 278 28 186 19 165 27 308
784 0.49448476837007382 -0.022404204067168212 5.8764849935297478 74 62 46 1.843488806349254 143 73 20 312 21 266
785 0.50438319004407339 -0.031711846559142103 6.0271361022731886 227 222 218 1.6023802759775638 8 331 20 331 28 264
788 -0.34690510755588061 0.80862329082636308 4.9731943493252802 0 0 0 1.0688956254961066 13 349 142 307 141 375
792 -1.3306747699295396 1.1482673752901105 4.9298761432455702 157 134 40 1.0957311683641406 13 381 20 424
793 0.94475022673650533 -0.26595460363511592 6.0404286752989744 41 42 36 1.7632081587675863 5 363 19 363 29 216 30 347 41 348 40 264
794 0.94419046337108803 -0.26609832996339972 6.0406028092079218 41 42 36 1.9017513387077443 5 364 19 364 29 217 41 347 40 263
801 -0.73465350671636109 0.97521135126295377 4.8126985769397619 71 24 14 1.172221070623646 15 362 9 505 142 311 143 142 5 336 6 394 7 426 8 434 14 362 10 436 13 354 20 407 12 379 141 368 22 442 21 357 23 461 24 499 11 423 33 283 32 386
802 1.2088793278547167 -0.32187909780024071 6.2360683657862044 61 60 56 1.2072131842855436 7 156 10 107 139 151 142 181 140 133 142 124 9 128 20 190
803 -2.4453029109441964 1.2299761766725039 5.9585460274127584 225 221 210 2.3019707663689357 13 175 20 225
804 0.84070834199968636 -0.43662915291908383 6.0592767070925078 201 189 91 1.3846245145459051 20 257 21 156 30 239 29 142
808 -0.9626017797026506 -1.6509463757777501 6.3512437565468725 163 156 137 1.7475443576463758 5 65 22 0 23 134 32 56
809 -2.6488395237788041 0.728518361539639 5.6005527698654669 202 188 102 0.4909750368129151 20 22 22 32 21 123 23 59
811 -0.12692699742216995 2.5973995974452002 7.2959001714843135 159 142 95 1.7620102346241286 20 57 22 78
812 -1.511460327698638 -0.47565514457073066 5.3181363955759755 197 186 122 0.52698733415703858 20 185 22 117 21 114 23 7
813 -0.89393473848705374 0.66975751617885859 4.7022623086072919 103 89 50 2.1970766590249022 20 204 22 132 21 214 32 70 7 109
814 -0.8666011585168194 0.68913861797934062 4.6730518797377814 78 76 54 1.4048939109641925 20 207 22 134 19 115 27 325
816 -0.90045899276660735 -1.2643050222012873 6.0804523585699171 156 139 59 0.78714631926956979 20 182 22 210 21 111
818 0.60388212126272367 0.91547827919558811 6.0741926644889075 170 148 68 1.3317861579958588 20 281 22 235 21 182 23 176 24 213 19 185 28 259 27 386 28 274 30 237 39 317 41 227 39 302 38 328 43 250 37 255 36 334
819 -0.13209503328199862 2.6615613833943037 7.2219002852996557 115 96 38 0.58596905734237559 20 329 21 281
821 0.70589587942758547 -0.18614472793721779 5.8360359079053055 40 33 23 1.0206319891930817 20 262 22 274 24 377
822 0.68628030953972097 0.94483239295509147 6.1785605861299464 158 141 79 0.58868966835310665 20 320 22 299 21 292 19 250
824 -0.033596885059850326 2.6708774193828901 7.2765343800506761 167 153 124 1.5773851177114977 20 300 22 316 21 246
825 -0.086667942648950669 0.019714633925368919 5.5575837167017337 154 133 53 1.4072180173445172 20 354 22 321 16 332
826 -1.4374445726235736 1.3180242070155435 5.4705743306461114 113 69 4 0.28808514254326228 5 223 22 338 24 402
827 -1.4464342181436864 0.36042037196366805 4.8595307025413943 53 53 41 0.91560697449903061 20 348 22 347 23 343 24 379 19 269 18 253 26 257
828 0.72114579533847645 1.0901265779459595 6.1489608136917182 146 120 44 0.5821408672999866 20 286 22 358 21 231 23 379 19 238
829 -0.096537873376281599 0.88863671149443013 5.3401649570219316 139 114 47 1.0477077214868535 20 366 22 383 23 406 24 449
830 -1.9964528932009802 -5.9842042056769387 13.147052098940383 0 0 0 0.91496128917689312 138 314 139 297
831 -1.609568179224528 1.0515748767959257 5.0388763786696344 108 45 23 1.2898659675829391 20 378 21 325
832 0.5676050813816903 0.87826332021730547 6.0370523960308713 147 125 39 1.1409390519390499 12 348 22 406 23 422 24 470
833 -1.81021863610009 2.9212359998871884 6.2974879166369346 0 0 0 1.691347465351305 5 302 14 332 13 316 7 396
835 -1.7105313984874875 1.149050919428896 5.3199714065345347 128 92 16 0.85412503752111191 20 387 21 340 19 298
836 -0.10395474467200938 2.6712951651167001 7.2896161502405112 121 101 55 2.0524319729474265 20 391 22 413 21 341 24 480 23 437
837 -0.16708143680379839 2.8165642252584546 6.7492898254724061 116 84 12 2.1290459150081236 20 392 21 342 28 325 30 305
840 -2.3222178150375834 0.65030716170719416 5.5179352635072476 148 114 25 1.0285261221618378 20 398 22 429 21 350 19 329 18 292 16 345 3 246 2 322
841 -2.3211584294140066 0.64969876096961587 5.5177318422253805 148 114 25 1.2669620650849525 20 399 22 430 21 351 19 330 18 293 16 346 3 247 2 321 129 261 128 293 127 279 126 242
843 -1.4485959175868919 0.48372260535917799 4.8460390269025106 0 0 0 1.8665113377704836 7 452 8 455
844 0.13007941056781702 3.1651306841306734 6.4911847443585886 158 147 127 1.8723874735351029 20 425 141 401 21 379 19 362
847 -0.64645830727821685 0.64050859430534146 4.7604344181191323 211 194 62 1.5429087912775106 10 453 20 420 9 517 22 464 21 376 30 335 29 221
848 -0.35696461628954357 0.62278553471775655 4.9962523571950825 27 28 20 2.2260377971304224 20 422 22 465 21 377 31 304 44 295 47 258
849 0.92561909698956713 -0.26362123468508425 6.1180039176112695 41 41 33 1.9627507998875504 7 465 8 464 21 384
850 -0.23060231417934357 0.98266015105982452 5.1964535949584389 122 45 35 1.6389195949453417 20 433 22 472 21 391 23 490
854 -1.8245039566948615 2.1454557827540142 6.0083022001850575 130 101 24 1.7920196564458251 20 442 21 406 23 504 24 548 31 325
856 -0.29404807643275543 0.55031387533774945 4.9840828362577945 30 30 22 2.5828269484235462 20 445 22 492 24 551
861 0.34763945544827096 -6.1794629080683592 13.634235221935802 131 129 114 3.0717986233224153 138 323 22 417
862 -1.0960952265911414 -4.877718904884194 11.266840625638004 0 0 0 2.2966157071426401 7 411 138 334
863 -1.5496938155947393 -4.9647975713935821 11.413423000637509 0 0 0 0.48670415872303213 7 429 138 348
864 -1.7473963171263924 0.73027510490683545 5.1308288269092639 109 42 34 2.3485194241364571 22 452 23 474 24 518
868 0.70727785833254531 1.0854261336699114 6.1488613635006697 119 95 42 1.2914026620489938 142 276 143 92 6 335 7 328 8 381 14 308 139 258 140 236 9 434 12 332 12 350 10 366 24 473 11 360
869 -2.4489237208077204 0.63895998849223512 5.5111702618510856 229 206 84 1.2089590834231889 9 155 20 17 21 23
870 0.38663060094476692 0.97755853880486987 5.908488683795837 152 131 50 1.5897541992500308 8 54 21 33
871 0.85292952061874094 -0.34356849498678604 5.9251326845101557 51 43 32 0.83916332656002157 20 122 21 116 19 159 28 181 27 300
873 -0.068437124339808281 1.605385644631979 6.3093858888081034 207 194 160 0.50542835147515086 20 241 22 183 21 200
876 0.58933536735226044 0.90150588908116003 6.075555513423323 125 102 29 2.0455213706591251 20 318 21 272 31 204 43 272 41 259 32 257 33 189
877 0.70679404762071096 1.0095529234628031 6.1896208295909219 217 212 203 0.16522495569187773 20 322 21 274
878 0.858998088889805 -0.43800968053250955 6.0815008650048927 225 220 215 0.73005930203657021 20 347 22 320 21 284
879 0.57578189488319109 0.84417465227169897 6.0655741575934385 171 151 76 1.5615857859132247 20 334 21 288 19 275 28 281 27 407 30 261 31 221 41 266 39 332 38 361
880 -0.10892724973565467 2.6055565026033456 6.8082401400722041 165 146 79 0.36717149463089421 20 367 21 297
883 -0.11416549065849475 0.84573240009727557 5.2700210591917926 134 111 37 1.1942656105220606 20 364 21 314 23 389 22 350 19 259
886 -0.77033661633754347 1.0333890827480594 4.8486676870321146 129 69 59 0.54807348079158236 6 353 22 402 21 333
887 -1.5887017500901839 1.0950766274644277 5.0509051648007137 161 144 54 2.3070601132934132 20 386 21 337 19 312 16 250 18 268
888 -11.620085707472843 -5.6737082263608549 15.411607450342029 140 123 97 0.72083418589747661 23 428 31 264
891 -1.0600477405290136 0.75117964466488496 4.6378656139864738 134 110 24 2.0127734403300948 20 402 21 354 22 437 31 276
892 -1.1001018803615223 0.92948307921944873 4.7648009983034072 107 39 26 1.4301437144355653 20 406 22 441 21 356 23 460 24 498 30 309 29 185
893 -0.74215410888874267 0.96721390339279567 4.8214437705595117 0 0 0 1.1894891560027152 137 365 138 357 139 347 140 339
894 -0.93436427469227523 -1.4429877051759754 6.124486009654925 63 63 50 1.3490438470693864 22 435 21 362
896 -1.7767896270419861 0.71252264561453749 5.1421851117533031 124 50 39 1.5617223388587 20 412 21 365 19 344
897 -2.1464255063694253 0.70044567750717157 5.5772826701207103 234 219 172 0.6993720783203411 20 413 21 366 24 507
898 -0.13350901656366246 0.24614938455186039 5.4931793526133941 140 114 37 2.1678584244848182 22 451 21 370 19 351
899 -1.4335607790448455 0.50434250872322994 4.8439355005020293 45 43 31 2.0981358412225743 20 416 141 387 14 382 21 371 31 282
900 -1.8790808323560646 3.0423610647200143 6.4183295276857679 103 73 23 0.85703459154696637 20 417 21 372
901 -9.6681580836353227 -4.1216354808791369 12.303870581968031 40 35 29 0.8967962160112446 22 459 21 373 23 470 24 505
903 -0.66762875596141946 0.62895176654913254 4.826402567010649 212 192 59 1.3890824759472389 5 353 20 421 21 375 33 317
904 -2.4592961632809844 0.79252563873344417 5.6098451495087014 142 110 29 1.2510758027126059 20 423 22 466 21 378 23 483 24 525 26 348 19 358
906 -7.9233737519242062 -3.7935263629396423 11.929221627043008 148 132 107 1.2381808480208889 22 460 21 381 23 480 24 523
909 0.0011717266338731117 0.12642814401687666 5.1545570213782188 0 0 0 1.3637955391065413 5 350 14 388
910 0.0011717266338731117 0.12642814401687666 5.1545570213782188 0 0 0 1.3637955391065413 5 349 14 387
912 -2.1164196304414866 1.6417639621724609 5.7832842445747596 226 221 215 2.3161340546971423 20 436 21 395 32 416
916 -0.6551759737416305 1.2343045793373553 5.2904761539187657 163 140 26 0.43197059913670016 22 483 21 404
927 -1.0491065745954078 1.0078781588201107 6.0412474607939508 132 108 20 1.3131089762448722 21 419 30 366
928 -1.0491065745954078 1.0078781588201107 6.0412474607939508 132 108 20 1.3131089762448722 21 420 30 367
929 -2.6009127135677348 0.68491025337539446 5.5635446058952081 183 170 72 1.5426564962755458 15 109 5 142 21 122 20 132 22 138 19 108 136 183 132 164 131 156 130 158
930 -0.39036345793981442 2.9483396225624148 6.4343029497642981 82 54 25 2.3072757970562208 20 401 21 353
932 1.2165991451089149 3.0339243038482979 6.7237601032459695 186 178 167 0.91949424673858593 14 412 18 357 4 336
934 -2.5243554275688931 0.70388635773293373 5.5261465155438838 219 196 92 0.7722829440491541 15 41 22 31 23 58 24 90 19 38 16 42
935 -0.11812911275599768 1.0660937037150953 5.7418749076146112 138 112 63 1.1469574382328203 9 246 23 79
936 -0.069359736573959704 1.5922669368726952 6.387084833223283 189 177 151 0.38312851185200564 22 182 23 102 24 230
937 -1.2809286892171379 0.48998560454100404 4.7711665979650109 53 55 41 0.50149114829997776 9 139 23 233 24 263
939 -0.7522543849450084 -0.12680779199617592 4.8767226333603135 255 241 193 0.14740233574334397 22 270 23 287 24 312
940 -0.33420710204149839 0.46740126897395529 4.993382770392814 33 31 18 0.83419131159301574 15 216 23 299 18 202 16 205 26 204 39 225 41 152 31 165 35 157
941 -0.25171357999778915 0.67057322156433719 5.1077715050547896 33 30 12 2.2511357519547479 9 230 16 241 26 212 36 275 35 277
942 0.59610286316791916 0.9101569243625125 6.0590695058538913 142 119 49 0.90016196250765013 9 77 22 295 23 315
943 -1.5063862274619699 1.2827955419110775 5.4019378804712561 121 76 9 0.70802570282863742 137 252 24 357
944 0.62400939684484624 -0.10173912347804806 5.7667557016768898 168 146 63 2.4700320024954441 20 266 23 342 24 378 11 245
945 -1.2228100598297891 0.48293728002189668 4.7682698033858424 202 189 101 0.66266418790871617 9 368 23 346 24 383
946 -0.35424639940320091 0.44986251133000715 4.9449291357152489 33 31 20 0.807070443589886 8 178 24 321
948 -0.66571237293414676 0.95552546395116977 4.8198078754968856 123 94 20 1.1428796893832964 141 303 23 356 24 395 16 167
949 -0.0029618548910567569 1.5244580993623207 6.2742370350093131 180 163 81 1.9726034683854978 22 312 23 365
950 0.67627378902697088 0.94560035030626721 6.0927442066571764 225 221 214 2.03402554519249 10 343 23 392 24 434
951 -2.0739616778619658 -6.6045534606117222 14.305334242651805 165 166 150 0.50928064015067742 22 397 23 416
952 -0.73865742679948276 -0.13141574527619743 4.9026285037400319 244 231 177 0.42928596462917495 22 398 23 417 24 465
954 -0.12407665879404117 0.96013487007595677 6.0291366031387135 227 227 224 0.93622585012592818 22 385 23 424 24 476
955 0.67537729873994057 1.0009859436941573 6.1146491170550048 143 116 45 1.7278532063244707 137 305 23 425 24 472
957 -0.96801628737257728 -7.2475978420663321 15.399701807953717 157 155 143 0.10908319893199246 23 441 33 273
959 -8.0792281224007141 -5.0129908576282292 13.595601884876626 234 230 227 0.19425592608962344 21 369 23 469
963 -0.64630715791037652 0.64094408660786284 4.7634653788683163 216 195 52 1.9269635170441035 10 452 22 463 9 516 29 222 41 331
965 -1.3654207641320844 1.1772800548887536 4.9372572092150149 0 0 0 0.21767978725379866 15 404 143 183
967 0.55711402006075739 3.0293840810922328 6.7485477961377676 158 153 134 1.721726063579883 20 437 23 497 21 397 19 370 18 348 22 479
976 0.51796567484321032 1.0647333650384299 6.1337183307206367 114 87 23 1.5775838215167843 9 539 12 411 5 370 6 431 7 472 8 472 4 311 21 394 23 493 20 435 22 475 24 535 19 367 11 455 18 343 16 393 3 272 33 326
977 0.51789629107561275 1.065135106782533 6.1337434994900208 134 103 28 1.6075700811863445 9 540 12 412 5 371 6 432 7 473 8 473 4 310 21 393 23 494 20 434 22 476 24 536 19 366 11 456 18 344 16 394 3 271 33 327 47 271
978 -2.4530139532393966 0.59944580892553934 5.5172563331686417 235 215 134 0.83035247785215205 12 92 24 88
979 -0.37087091137212458 0.75618726142544834 4.9309144272716203 31 25 13 0.59442037546008852 10 243 24 337
980 -1.599028693975951 2.8129487551751602 6.4306181367237567 145 121 25 1.1243626490331038 137 409 23 475 135 212
981 -1.7781589915273062 3.7100501185822918 5.5838184474675723 221 216 212 1.5292660239040323 7 488 23 513 6 449
982 0.43218655141118223 2.1359261203358768 6.3854459442615434 229 226 221 1.1758067221651494 8 495 23 516
983 -1.4518390561212948 0.39979053767182443 4.8543209042869586 111 111 92 0.23767403397611994 23 21 24 27 18 29 16 38
984 -1.2912414719031007 0.49794402387596698 4.7755969550971029 84 86 72 0.2693612635165476 15 97 23 35 24 44
985 -0.37270222711527923 0.44238860052794443 4.9631293372644949 133 130 113 0.25213871723600934 9 49 24 49
986 0.38164630601658489 0.97094869962825248 6.0358372700810081 156 136 63 0.02752840617150127 23 264 24 109
987 0.83645921462821127 -0.44875995036166749 6.0913841805697926 128 114 41 2.4344393882667612 23 142 24 168 28 235 27 346
988 -0.6649658379223975 0.94802000446564061 4.8094314109638434 124 95 26 0.90176311203198944 141 70 24 200 28 171 29 74 41 51
989 -0.10753578756124124 0.89708313841462717 5.2971977498799632 144 104 62 0.094959070938295434 23 171 24 202
990 -0.077104449378133544 1.0159629434556721 5.1901726535752424 143 107 49 2.2588397227867283 23 252 24 205
991 -2.0625905204781119 1.5257419775212571 5.9366173282290626 227 220 204 1.1136331341638688 22 311 24 227 19 194
992 0.37666300536141217 0.95407241198195425 6.0600581842761656 200 184 122 1.387772348837792 21 226 23 262 24 353 20 140 22 47
993 0.37257190502772936 0.95196157794884462 6.0704566242931826 200 184 122 0.64310824539340417 23 263 24 354
994 0.65330722924313001 0.91798352539891059 6.0970182459603421 158 136 59 1.3283793134556945 10 342 22 369 24 452 11 339
995 0.86710101133639916 -0.44432442712323195 6.0307993380926792 233 230 225 1.3683853769237466 23 418 24 467 33 231 32 316
997 -0.10280958429365736 -0.09363683522909208 5.6416335707264027 164 133 41 0.91135207898558246 4 271 23 433 24 477
998 -0.95581941917328705 -1.5194842508528164 6.2710410937811538 61 62 48 0.34357669545505648 23 452 24 484
999 -0.96706943043304194 -1.540157395674691 6.3072871638135739 61 62 48 1.3069428188942185 7 416 23 451 24 485
1000 -9.2763767224169644 -6.1330854528157088 13.712971435207951 152 138 112 0.030419421539175099 22 434 24 492
1001 -1.1080778484949807 0.55098715020563316 4.7710907815088897 0 0 0 0.76467215199144878 10 457 23 472 24 513
1005 0.8837173837004173 -0.23810755226229491 6.0505874208232608 41 40 36 1.3313604535641521 10 463 33 330 24 532 32 419 45 277
1006 -1.3877996327179409 1.165874043473522 5.1167349042455479 0 0 0 1.9724440691593894 7 481 23 492
1008 -0.4978727609747377 2.7370049261727982 6.2369875051399015 143 116 25 1.3101048867471428 23 496 24 538
1019 -1.5732229944313938 0.73514181205470086 4.8395549689298614 173 91 80 1.933264614260654 12 284 24 198 9 314
1020 -0.33938648651221048 0.5309699460445011 5.0326360075743306 28 27 15 1.1090001300939718 23 302 24 328
1021 0.78749388339633697 -0.33436595335104008 5.8932058784537951 169 148 57 1.1097425634743003 10 354 24 458
1022 -1.6418568797922184 2.7328493051737301 6.0384736122525862 0 0 0 1.4366045617732195 138 402 141 400
1024 0.84699555579671781 -0.40880995021328809 6.0256629768647469 203 186 85 2.8239683707650896 6 263 19 8
1025 0.67077401081544996 -0.072308489608394685 5.9352519231163177 97 97 85 0.37555015317930057 14 17 19 16 28 48
1028 -2.0438318362443546 1.5555493061819543 5.985409585293243 149 135 69 0.82011411430068137 10 138 19 65
1029 -1.4491636175378493 0.39912196095177577 4.8491329992103784 63 64 51 1.1272610088556119 137 182 19 101 27 27
1030 -1.2134720005195523 -1.2251435424519985 5.7270515847612948 180 169 121 2.9257172393031254 9 107 19 155
1031 -0.91809462189440971 -1.3021566843962746 6.063251718346109 168 151 62 2.2566613164932723 4 3 19 157 16 222
1032 -1.2481066636882623 -1.2280799356392516 5.7767377665322863 244 232 122 2.2939333946143901 15 267 26 83
1036 -0.11325157200558872 0.90443375608596421 5.3242533212798095 104 48 26 1.5425721517949174 23 359 19 233 18 174 16 83 28 233 27 333 30 168 31 147 31 191 39 261 41 208 41 238 38 327 43 245
1038 0.74729737458287637 1.0342375856736912 6.0552778020335891 219 214 208 1.0783003851742279 22 431 16 326
1039 -1.3073276541988714 0.82851980757675914 4.7305542225359503 0 0 0 2.4935239657310451 137 375 24 495
1040 -0.53808005052237984 0.90075951245242059 4.8667557147165699 128 102 18 2.2663464362720838 18 320 16 364 29 199 43 335
1044 -0.67167180879238664 0.64200952340257489 4.8078747082779962 212 192 43 1.6699637474262978 4 307 13 376 19 360 136 280 30 336 31 303 47 257 46 288 134 215
1046 -0.78819669172673557 0.3107682716263539 4.564927030683064 0 0 0 1.9672653097216055 4 319 13 370
1049 -2.2989489457794883 1.6027997778051839 6.6078334123041227 0 0 0 0.63723452892752031 7 475 137 413
1051 -2.5359720615938981 2.8183288433250917 6.910513685592095 224 220 208 1.438801445881317 20 444 19 374
1058 -2.5851308881133312 2.0859012077738703 6.0629527850240876 222 220 208 0.18082918289933381 7 498 9 561
1059 -0.66423926372246256 0.6364703386917232 4.76208513218939 159 144 37 1.9070254935228172 15 381 138 370 139 359 142 338 141 395 6 423 9 528 7 459 8 460 14 384 19 359 18 342 16 385 27 519 26 359 25 243 34 444
1060 0.72074365519350769 1.1389542870550076 6.198544839608072 106 84 36 1.045165248339462 9 389 142 239 8 318 14 231 5 251 143 71 4 236 13 225 23 397 24 439 19 282 6 282 7 289 8 317 10 308 22 372 21 306 20 351 23 396 24 438 11 311 11 312
1062 0.54758240383171541 -0.046687135114920744 5.8464022691207704 139 132 117 0.35020762560775565 14 18 28 46
1063 -2.6201453527645571 0.79929263672390682 5.5941677375882568 142 120 57 2.3771157483809375 5 144 19 169
1064 -1.256053889180798 -1.3042016449842111 5.9075666513675635 220 215 203 0.84041750924999215 8 156 19 206
1065 -2.0738899403213802 0.67584640286879849 5.4142082120741044 228 215 209 2.39350754311761 141 396 19 354
1068 0.84433941902782439 -0.39090582253962958 5.9611335321496188 0 0 0 0.083721001640128967 10 24 21 9
1069 -0.87057176087252353 0.6694070393062107 4.6653484494545667 83 65 43 0.90819764880936094 9 225 12 145 11 42
1070 0.70509391252180231 -0.23629354883720094 6.0268570261836967 0 0 0 2.340381550555509 8 237 9 295
1071 0.58434982294606119 -0.08318625345434541 5.8520680536956871 0 0 0 0.35396765170330441 9 216 23 294
1073 -0.14445189930595156 1.0175485861890201 5.8894552160138502 123 97 20 2.6836575522578907 23 261 11 262
1074 -0.91146939639553481 0.85594360341587161 4.7064069670544919 33 16 4 1.1181766718948896 12 320 11 364
1075 8.1077456984907545 -5.2743923652703177 12.784566882649003 153 146 138 1.4361453084483313 9 473 10 411 11 385
1078 -0.097921019111761154 1.0860490983243227 5.6373316457428384 206 201 197 0.92263489434459522 23 318 11 412
1081 -1.1375662484683586 0.58765988636258482 4.7061681289091215 215 199 111 1.6044668848173604 12 401 140 381 11 443
1082 0.53585993042489644 1.3865879578649312 6.2205903549345161 195 190 186 2.9891858004815024 24 526 11 448
1083 -0.18523704597199314 0.83182967703380617 5.4921774582000547 96 36 25 1.3286943548112271 9 529 10 458 11 452
1089 -2.2466540378696584 1.6348433272419005 6.0129344787786403 0 0 0 1.1747783978399466 14 403 24 537
1090 0.16544595502180087 1.6819134226999106 6.316073793139819 0 0 0 0.28667690983524463 22 486 24 547
1091 -1.6037617815601775 2.7798490786024841 6.1656879651045822 0 0 0 1.9050830243745083 9 541 142 341 10 467
1092 -0.18198862713971081 2.0410030187007147 6.3175040608596378 0 0 0 0.73422666070691689 4 316 13 382
1094 0.56356406942525328 -0.11122932126522672 6.0320677130979812 24 20 6 3.4700585355475946 8 242 11 251
1095 -2.2856354827784648 0.57320351464591235 5.7252237344680772 198 167 66 3.3502018180451199 10 383 11 345
1096 7.5755645993379037 -5.2700758993846319 13.49502886578391 109 88 67 2.1958029232276237 10 433 11 399
1097 -0.63973420875028453 0.72092625894292761 4.6597148410511977 181 161 45 2.0033191240448516 12 376 11 420
1098 0.067224396768209266 0.96677160368811554 5.7029234575505097 205 200 196 2.2224821895285665 12 404 11 453
1099 -0.94969368256330555 3.2514038697491721 6.2836415680298767 76 54 30 1.5201483347651594 20 455 19 382 137 423
1100 -0.68182801729633824 0.94660513190333506 4.8035874722025724 93 32 17 1.9422124894122175 15 306 141 313 4 254 19 311 16 276 16 292 28 278 27 404 30 253 26 251 29 152 41 234 39 245 38 314
1101 -1.2909446376980513 0.43872843312024878 4.7943879664989142 65 67 53 0.48983514774439985 15 19 18 100 16 50
1103 -1.2004605480967518 -1.2513941190829141 5.6322080466752613 203 195 173 1.0964946922491015 15 205 18 140
1104 -1.5321466634688647 -0.42222338850919494 5.3048532254277907 215 192 74 1.1403082225088941 8 84 18 143
1105 -0.43741740250565136 0.50182490019221926 4.9195694800289402 134 128 112 0.82818843186361779 15 217 18 161 26 236 25 123 30 184 41 191
1106 -0.94111425130902271 -1.6422001174953276 6.344563784310072 183 181 169 0.16348940908006476 137 219 18 182
1109 -0.78023311692580322 1.1272266063300647 4.9070763743988079 80 28 15 1.9480009960591069 15 284 141 277 18 221 26 228
1110 -0.54809258131411909 0.92058037988604502 4.8004608895012826 114 87 6 0.37784934680102689 141 301 18 233 16 275
1111 -0.50586194456358158 0.65488437713510972 4.8731232231833781 174 159 32 1.0555348368252175 4 228 142 237 18 254 16 266 18 227
1112 -1.0310591123211088 -0.67048019584509944 5.8088055826421741 220 215 209 0.91047126049533 18 286 16 329
1116 -1.1089538000270351 -0.74357713638074696 5.6753561565753197 171 135 15 0.077919659284200443 4 297 27 512
1117 0.74320617690597068 -0.47177254671993973 5.8602821236514098 0 0 0 3.0326847778948443 142 329 143 159
1119 0.90659322570015877 -0.22691174685963431 6.0007726974710272 0 0 0 0.82631239186041006 7 466 22 470
1121 -0.76595275927443507 0.31956114882303432 4.6597043389055708 0 0 0 1.2118801434673121 14 399 19 365
1123 0.2307279057343701 0.43570985591978678 5.9482261603550066 204 200 189 1.5147672716229015 23 514 24 554 21 412 22 494 28 388
1126 0.68443796483631281 -0.057373804007349621 6.0088312222627582 159 155 144 0.46151400164594603 142 9 18 15
1127 -0.25971837618122023 0.7140885535024033 5.0661341911749975 165 152 51 0.82232777829615278 24 338 16 242 30 201 29 118
1128 -0.23171154438015409 1.1934261006094435 5.7955125702739849 125 65 25 1.4917411802084293 5 252 18 237
1130 0.3389928988268075 1.9991659704152007 6.6467671797558028 223 219 208 0.44333694651842526 13 393 27 533
1131 -2.5337570962341536 2.0014951178813623 5.9232465632963871 0 0 0 0.43497860420200818 14 413 15 422
1132 -1.2824532266979252 0.47370103623337195 4.7798583418635614 105 106 90 0.40513106590359371 18 38 16 53 26 32 27 158 25 27
1133 -1.3390900150166019 -1.2234428606239407 5.9387312173828413 207 200 173 0.94841878875754126 4 84 16 105
1135 -0.33783365069981308 0.54214590348803848 4.9547480675497004 117 113 91 0.054501373145347115 18 166 16 145
1136 -0.90022295472004243 0.69938785623480404 4.7231232940465997 86 83 52 1.8362015615509821 18 169 16 150 28 199 29 110
1137 -0.42585500213438493 0.7484218563727808 4.8822396926213356 158 139 8 0.52424497178784779 18 123 16 157 30 160 26 177 31 141 29 115 39 182 41 162
1138 -0.67461671029328685 0.94476267805445302 4.8112084572608032 77 25 1 0.79159038558521444 18 216 16 166
1139 0.77534024156816428 -0.28448126415735497 5.7311723619678565 136 108 34 1.3717719648171425 18 13 16 189 26 144
1141 -0.26884680727079763 0.71404605788091902 5.0608614974336508 35 24 14 0.25561160403603544 16 209 26 178 29 117
1142 -0.93981052665643094 -1.3292554436621846 5.9973928314309513 104 94 36 1.4542606139614342 5 1 21 152 16 221
1144 -0.35431999276442888 0.57337596451416273 4.9300790046608922 20 20 6 2.2761144947605212 15 223 141 205 16 240 39 275 41 216
1145 -0.13639809171353909 0.84052184255042939 5.2369588130794318 87 38 23 1.3122167142508152 18 212 16 247 27 383 28 270 30 243 19 249 26 247 31 201 29 149 39 314 41 251
1146 0.71861644691455162 -0.16839777929643251 5.9669437777649694 42 44 23 1.893746577883441 13 207 142 217 16 261
1147 0.64668268495709846 0.90628448902680647 6.1267582626421007 166 148 68 1.0479430636173346 19 279 16 267 28 275 27 399 30 245 41 228 27 387 43 234 32 293
1149 -1.5790057912639215 1.045835489906088 5.0062090503986516 105 55 24 1.7851016355459981 18 265 19 310 16 304
1151 -0.068214143429199348 1.6002983379569713 6.2211963540362047 180 161 105 1.5932839058472126 19 266 16 307 3 111
1152 0.62625189993524077 0.87321651595510386 6.1346566486446266 213 209 199 1.5617059153228292 4 252 16 309 18 277
1155 -2.3914099396993986 0.58158841306453324 5.538039930604854 233 212 59 1.5612312398335291 18 276 16 324 3 222 2 310 127 263 129 243 128 275
1157 -1.130671340578965 0.94562228686211869 4.7990274843563565 99 41 27 1.9292068158753297 18 298 16 339 3 231
1159 -2.1558487822452364 3.3777352945595909 7.0682609742028299 90 70 36 0.057483144072581288 18 315 16 356
1162 -2.1688647717589138 0.26224881669948524 5.9887358593710687 180 144 8 0.44086026668684108 13 368 16 367
1165 -1.3830084366187196 0.51546496456022117 4.8029283454152685 32 32 22 1.4216895901108344 16 375 27 494 28 345 29 198
1166 -0.40268634439578177 0.66746514928945655 5.0295461333563587 24 26 15 1.0831206731497371 18 327 16 376 27 501
1167 -0.1493758615250585 0.22386347240317939 5.2916762509881288 136 114 29 1.1423103745391927 18 330 16 381
1168 -2.4345641953775226 0.79903532407731837 5.5918657905472005 139 108 28 1.6070996811445077 18 332 16 383 25 234
1169 -1.0749861182728151 0.58408744853975336 4.6925547461795114 0 0 0 0.83253646981066554 18 340 22 462 21 374 20 419 16 384
1172 -0.93299112720504929 0.93578334106380834 4.806383032787366 107 40 28 1.0410430849376404 18 350 20 439 16 392
1173 -2.1559484849163999 1.640530468565133 5.8174728750154587 220 216 205 1.4178717115910064 18 345 28 374
1177 -0.67190152987862239 0.99119446839598757 4.8324742349557521 76 59 15 1.5832727807373304 16 306 18 269 20 379 28 290 27 422 31 218 39 312 41 258 40 163 38 338 43 270 45 180 46 209 47 170
1178 -1.4187840695904326 0.87389698220374068 4.6042181736790271 141 117 45 0.085640104913545928 19 224 16 160
1181 -1.0491692465528653 -0.58604278488624062 5.5470494600493145 201 182 106 0.10390912501861405 13 5 136 12
1183 -2.4640591889063974 0.41777675379046514 6.4532769559827079 168 149 54 1.3845077413467515 14 98 136 94 3 48
1184 -2.5738574484525119 0.9605348921751512 5.9685339858903665 157 134 49 2.45655923568712 7 249 136 154
1187 -1.1005169920629867 -1.3212843231333473 5.8515092483317712 85 74 46 0.56954875651022374 13 253 136 165
1188 -0.93295530212340527 0.82844344417986215 4.6992375240811546 137 111 26 1.1358309232705235 137 295 136 198 135 103 133 140 134 136 130 142
1191 6.9373106532868718 1.0573294641520823 10.009389186359076 188 183 171 0.15031875649573984 137 335 136 254
1193 -1.1639578533876671 -0.66333056858056538 5.3586521347832372 180 153 20 2.1668418371930702 137 378 136 269
1194 -1.2769142338122523 0.82188111862793556 4.6840012273188236 0 0 0 0.85342956579263052 16 369 18 317
1196 -1.5437462871886922 -1.271525110274883 6.2445050417917161 220 213 207 0.28801704089664287 13 388 136 298
1203 -1.5704113329094396 -1.0443170137145514 6.1897600014215728 221 200 55 1.3377109800371971 15 316 142 262 141 333 143 95 5 274 6 319 7 336 8 345 14 318 4 255 13 319 136 226 137 314 138 299 139 282
1204 -0.06640728312973497 -0.057515680618039994 5.7419167455483979 0 0 0 0.85191828397484859 6 270 14 212 7 231
1205 6.1140985265217243 -0.65413149229414114 9.6083969844153518 0 0 0 1.3172213057651725 137 349 139 330 138 340
1206 0.72039476391653212 -0.4647949899730357 6.0338701770717851 220 197 55 1.2132716416326981 13 361 18 329 27 504 136 277
1207 -2.1155652971216767 0.63905022697816671 5.7367799630796963 214 210 201 2.6978412639282103 13 372 136 288
1208 1.1178305202320675 2.8598048446478153 6.191587460351796 177 169 156 2.0242623467192158 19 380 136 307
1211 -0.73361747187790827 1.0819322657517989 4.8734474492590998 120 89 30 2.6131082388338625 18 134 28 209 26 227
1213 -1.1626838724293194 0.8987354593222362 4.7734632489508968 85 30 11 1.3759407574068758 16 285 18 247 28 289 27 403 27 420
1214 0.67429994453843667 0.90540335653023041 6.1587402846686805 202 196 182 1.4482884904524134 16 303 28 293 27 408 30 263 31 223 40 183
1215 -1.0423799123947131 -1.3491980050631462 6.0878292772890106 202 176 40 1.8510049305659209 6 374 31 265 142 295
1216 0.028159211161171867 0.97400523700062713 6.0238929588045504 132 95 15 2.3161623003738945 16 350 18 296 30 303 19 323 28 335 29 186
1219 0.022377853414111231 0.044312081058055119 5.8243063159997233 205 198 188 1.8923409835156779 28 355 30 326 19 350
1225 -0.34117737634081341 0.62937313745189405 4.9950895716221773 0 0 0 1.3392297839460019 23 473 24 516
1231 -0.38377415702087231 0.51936685220617973 4.9591653465333367 102 94 75 0.93250858074338239 15 350 141 359 143 118 5 322 6 381 14 352 4 278 13 340 21 349 19 331 20 396 18 294 16 348 28 333 15 349 9 483 142 297 141 358 143 117 5 323 6 380 7 403 8 426 14 351 10 426 4 279 13 341 20 397 22 427 21 348 23 447 24 489 11 386 27 483 30 307 26 329 31 275 29 183 3 238 39 367 25 203 41 305 40 220 38 412 43 323 42 105 44 266 42 104 33 280 32 383 45 235 46 256 47 221 37 321 36 414 35 395
1232 0.3970167832372915 0.83760981211038921 6.1353034714591006 126 124 122 0.87168624194517896 20 408 22 443 21 358 23 463 30 317
1233 -0.98122553085328523 -0.73530772755931817 5.4208073953803027 171 135 15 0.76168033936223534 21 383 27 513
1234 0.74955215550047516 -0.50219620816548161 6.0242598210389682 211 202 186 1.7055419543378116 19 356 141 389 14 378 29 207
1236 -1.2695394833396774 -1.254835673680472 5.8749692984505852 227 210 91 1.2884537358138901 19 3 27 6
1238 -0.072015477700994326 0.039729082567422976 5.5890980810912039 100 76 4 0.72761261647229214 28 26 27 53 30 29 38 36 36 137
1239 -0.40295526025533923 1.2280414634641554 5.2068781405980076 133 95 10 0.39055341124061477 28 75 27 113 30 79
1241 -0.16191488728079192 -0.077021454950366539 5.3760390097292268 154 127 12 0.48385831986055344 18 14 27 140 29 4
1245 0.83039597288661249 -0.32809204884097154 5.8912619661989813 107 100 71 0.53661035445669869 19 12 27 153 26 24
1246 -0.1138704981954793 0.89125338860206427 5.3148870601225973 135 92 47 0.62073000800870792 28 120 27 202 41 59
1247 -0.11584280924942381 0.89401120632543618 5.3074815205186257 133 81 49 0.73835780818964103 28 172 27 203 31 101 39 202 29 98 41 57 38 225 43 161
1248 -1.3869530035915321 0.31410896057230669 4.8463569295553857 28 26 14 1.2408843081283705 28 84 27 228 26 85
1249 -1.4425108828956905 0.39272807636034718 4.851234420094344 46 44 31 0.3730992850010349 28 133 27 230 26 141
1250 -1.42817557296395 0.3934839288518478 4.845337033910627 155 149 136 0.78745142320777284 18 147 27 231 30 130
1253 -0.1258460672342932 0.85850224522095731 5.2748804520131021 98 41 20 0.40988901984744169 28 208 27 274 31 180 39 199 41 176 36 81
1256 1.2481863570750631 -0.27080432079263439 6.3210438669113218 186 180 168 1.448179893077193 28 191 26 198 25 118
1258 -3.1921517888855151 0.73525186676541421 7.1759266444430949 181 162 52 0.47493208989025049 23 259 27 345
1259 -1.2248900439481849 0.48023285225265355 4.7718197704091505 175 154 34 0.46363291803211115 16 236 27 350 26 234 25 137
1262 -0.12358894832852689 0.84116512106739261 5.2668883344313979 133 104 25 1.3130504902642572 28 271 27 396 30 244 26 252 31 202 29 146 39 298 41 236 38 343 43 258 44 213 46 210 47 172 37 265 36 291
1263 0.68408474774109984 0.98730994304369446 6.0934440421930551 161 136 42 0.71381023730070903 28 283 27 409 30 256 31 213 32 259
1265 -1.0665397671457562 -0.61034753338788295 5.5787353554800134 170 134 14 0.026141936672549618 28 296 27 412
1266 0.73856381340124633 1.0741351244670214 6.2511665802593877 210 203 190 1.5017134757783563 28 310 27 432 30 281 31 231 45 209 46 227 47 193
1267 1.1886046249900306 2.7070026387751094 7.2717169837401752 172 151 120 1.2142380536426647 28 314 27 434 30 286 31 233 29 161
1268 1.2832284362948627 2.7074806331249315 7.2661201013115919 172 151 120 0.3424738837042724 28 304 27 436 30 270 26 298
1269 1.5220133909252676 2.7136612898162453 7.2786245031429413 173 152 123 1.1152890911641085 28 315 27 437 30 272 31 235
1270 1.6319481192060667 2.7129351404837498 7.2756371603193806 184 160 130 1.1826438898745768 28 305 27 438 30 273 31 236
1271 1.7058699146707912 2.7108563261381047 7.265982646751505 179 154 124 0.47757030525437116 28 316 27 439 30 274 26 300 31 237
1272 1.8399476956681606 2.7177484343473139 7.2821917972895323 187 163 135 1.2556737663787017 28 306 27 440 30 275 26 284 31 224
1273 1.9654442544798836 2.7170236815899087 7.2746875087927956 182 157 126 1.0207196574767057 28 317 27 441 26 285 25 195
1274 -2.3689272503514651 0.56128732228744427 5.4970180880315125 228 210 66 1.337543559957129 28 309 27 444 30 278
1275 0.66699889170120774 0.94454769348610979 6.109626882470871 150 123 33 1.7544106386118332 28 323 30 295 29 169 42 80 44 247 45 214 46 238 43 305
1276 0.68547027556535656 2.7033067034380158 7.2825914758428389 182 161 132 0.81175234159397291 28 312 27 454 30 284 26 296 29 173
1277 1.0275303226774666 2.7030504975593423 7.2729784022478539 166 145 115 0.4265982510291581 28 313 27 455 30 285 26 297 31 254 29 174
1281 -0.39860870742756316 0.63313092457857389 4.8706719503620084 20 20 10 0.56074051624442889 28 349 27 496
1283 -1.0000189610957089 -1.4635024490561763 6.2368965813661186 48 48 38 1.3563787726859136 16 372 18 322 28 353 27 498
1284 -1.0057381342338916 -1.0143478896604421 5.8906428832629976 160 127 24 2.0433024712342522 18 324 27 499 40 244
1287 0.96567740494200049 -0.28252129431238932 6.0284787909999009 38 39 33 1.5102086185356012 13 362 39 412 18 335 27 514
1292 -0.9766017222764769 2.4868412446408943 6.174512092214214 0 0 0 2.2241110957728547 8 493 16 402
1297 1.0436752756151582 -0.25641658026447101 6.0695459665727904 60 60 55 1.1443799627070312 139 18 142 67 13 10 20 123 22 16 21 14 24 13 136 6 27 168 14 12 28 99 30 95 31 13 41 108 44 157 39 192 33 140 43 195 32 166
1298 -1.0000189610957089 -1.4635024490561763 6.2368965813661186 48 48 38 1.3563787726859136 18 323 27 497 16 371 28 354
1299 -0.747003383902896 1.097305390200624 4.8882566429445351 122 92 32 2.1040726537446308 16 174 27 275 30 71
1300 0.43111480385868767 2.696762572099725 7.2621749813914152 184 162 132 1.1447616234071112 28 326 27 452 30 283 31 252 33 238
1301 -0.40491842920996024 1.1939925568749981 5.0621169014297012 152 128 18 1.0333554254749358 18 282 27 467
1304 0.2468662944565049 0.44749920377659613 5.5441218510889936 0 0 0 2.2401867726776858 5 389 19 379 142 363
1305 -1.3574119188742406 0.31585199911623357 4.7953351639875121 81 78 61 1.3909603672375892 28 8 30 2 29 49
1306 -0.34259586673870135 0.45584910071747842 4.9898526005058201 23 22 5 0.37266327450815551 18 54 30 105 26 53 31 78 41 96
1308 -0.11677442173502883 0.96659883936670321 5.3837170644164738 133 91 33 0.58248235254386116 27 108 30 124 31 103
1309 -0.079415378362257302 0.022906063396638882 5.6901625413090988 152 128 34 0.55758774433591463 28 184 30 131 38 268
1310 -0.42960858181302042 0.46669809230584902 4.927844198016051 144 137 117 0.31758230490327244 24 267 30 142 31 161
1312 -0.11684203106606099 0.88205724539507779 5.3035829639809284 92 29 12 0.79264944369433277 16 80 30 166 39 201 41 177 36 158
1316 -0.69196263349967202 0.94983551114671227 4.7966696924146879 105 37 24 1.6814668654651601 20 385 22 401 44 211 43 256 46 208 45 195
1317 -2.4800416016735705 0.67173473989385657 5.4978093531653913 163 131 32 0.15603565910669992 28 287 30 258 31 216
1319 0.60514943854704117 0.87271913388205713 6.1106286631447615 218 211 201 1.6460301276419651 19 297 28 301 30 267 31 230 27 423 43 294 44 241 33 235 32 338 45 207 46 224 47 191
1320 0.71078428697667995 0.98125100007176258 6.2116941540337418 217 210 198 0.20143452576160781 27 424 28 302 30 268
1322 -1.3972520251161307 0.29151581555600703 4.8382851166393968 35 33 18 1.4810035642240682 30 277 31 241
1323 -6.9796246859568649 2.4899645935525658 7.2231513897217043 184 176 163 0.81630765514507109 30 279 26 287 25 174 32 323
1324 -6.9436350793580894 2.4861262277428056 7.200169937256419 184 176 163 1.5617053173400437 27 429 30 280 32 322
1325 2.1070640625192811 2.7142538128771436 7.261406244718235 184 163 136 1.0987149267353595 27 456 30 287 26 301 31 238
1326 2.1063729421615571 2.7185595249857917 7.2741347188031229 184 163 136 0.72253038881731591 27 457 30 288 31 239
1331 -0.15888056058890604 2.8459144905087732 6.7608322528935982 0 0 0 0.28971392345416036 19 320 27 453
